ply
format ascii 1.0
element vertex 1137
property float x
property float y
property float z
property uchar red
property uchar green
property uchar blue
end_header
-1.388889 0.277778 -14.222222 142 159 184 
-1.288591 0.268456 -13.744967 147 164 189 
-1.222591 0.265781 -13.607973 145 163 189 
-1.139159 0.258900 -13.255664 144 162 188 
-1.087379 0.258900 -13.255664 148 167 191 
-1.028939 0.257235 -13.170418 153 171 196 
-0.965079 0.253968 -13.003175 154 173 198 
-0.905660 0.251572 -12.880503 153 171 197 
-0.941176 0.276817 -14.173011 151 169 194 
-0.907801 0.283688 -14.524822 146 165 190 
-0.875912 0.291971 -14.948905 141 158 182 
-0.817518 0.291971 -14.948905 134 152 174 
-0.740214 0.284698 -14.576512 124 142 163 
-0.683274 0.284698 -14.576512 116 134 156 
0.486957 0.086957 -4.452174 130 133 129 
0.504348 0.086957 -4.452174 137 151 146 
0.512821 0.085470 -4.376069 145 162 156 
0.529915 0.085470 -4.376069 162 180 177 
0.547009 0.085470 -4.376069 171 190 190 
0.700565 0.056497 -2.892655 134 116 83 
0.711864 0.056497 -2.892655 134 116 83 
0.723164 0.056497 -2.892655 134 117 83 
-0.606635 0.060664 -3.882464 118 134 154 
-0.583723 0.059869 -3.831618 120 137 158 
-0.568756 0.059869 -3.831618 125 141 162 
-1.480427 0.227758 -14.576512 137 154 176 
-1.388889 0.222222 -14.222222 143 160 183 
-1.306122 0.217687 -13.931973 147 165 188 
-1.234899 0.214765 -13.744967 146 163 188 
-1.177258 0.214047 -13.698997 142 160 184 
-1.116279 0.212625 -13.607973 146 164 187 
-1.052632 0.210526 -13.473684 149 169 192 
-1.000000 0.210526 -13.473684 147 166 191 
-0.993103 0.220690 -14.124138 147 164 189 
-0.957747 0.225352 -14.422535 148 164 188 
-0.907801 0.226950 -14.524822 142 161 184 
-0.875912 0.233577 -14.948905 137 155 177 
-0.817518 0.233577 -14.948905 135 152 173 
-0.740214 0.227758 -14.576512 127 143 164 
-0.683274 0.227758 -14.576512 115 131 152 
0.486957 0.069565 -4.452174 127 133 127 
0.504348 0.069565 -4.452174 136 151 146 
0.512821 0.068376 -4.376069 144 161 156 
0.529915 0.068376 -4.376069 160 178 176 
0.547009 0.068376 -4.376069 170 190 190 
0.700565 0.045198 -2.892655 134 115 83 
0.711864 0.045198 -2.892655 134 115 84 
0.723164 0.045198 -2.892655 134 117 84 
-0.582633 0.044818 -3.824463 126 144 164 
-0.567164 0.044776 -3.820895 130 147 169 
-1.480427 0.170819 -14.576512 137 153 176 
-1.388889 0.166667 -14.222222 140 157 180 
-1.310580 0.163823 -13.979522 143 160 183 
-1.251701 0.163265 -13.931973 143 161 185 
-1.201365 0.163823 -13.979522 140 158 182 
-1.146758 0.163823 -13.979522 143 161 184 
-1.073825 0.161074 -13.744967 146 164 188 
-1.020134 0.161074 -13.744967 143 161 185 
-0.993103 0.165517 -14.124138 142 158 183 
-0.941176 0.166090 -14.173011 141 158 181 
-0.901408 0.169014 -14.422535 140 157 179 
-0.869565 0.173913 -14.840580 139 156 177 
-0.811594 0.173913 -14.840580 135 151 173 
-0.737589 0.170213 -14.524822 125 142 162 
-0.680851 0.170213 -14.524822 112 128 149 
0.486957 0.052174 -4.452174 126 131 124 
0.504348 0.052174 -4.452174 135 149 144 
0.512821 0.051282 -4.376069 144 159 155 
0.529915 0.051282 -4.376069 160 177 175 
0.547009 0.051282 -4.376069 169 188 188 
0.700565 0.033898 -2.892655 134 116 81 
0.711864 0.033898 -2.892655 134 115 83 
0.723164 0.033898 -2.892655 133 116 85 
-0.597015 0.029851 -3.820895 119 136 157 
-0.582090 0.029851 -3.820895 125 142 162 
-0.567164 0.029851 -3.820895 132 147 169 
-0.552239 0.029851 -3.820895 135 151 173 
-1.496403 0.115108 -14.733813 133 150 173 
-1.403509 0.112281 -14.371930 135 152 175 
-1.324138 0.110345 -14.124138 140 156 179 
-1.268965 0.110345 -14.124138 140 157 181 
-1.213793 0.110345 -14.124138 139 156 180 
-1.162630 0.110727 -14.173011 140 157 180 
-1.092150 0.109215 -13.979522 142 159 183 
-1.048276 0.110345 -14.124138 143 160 183 
-0.993103 0.110345 -14.124138 142 158 182 
-0.937931 0.110345 -14.124138 141 158 183 
-0.895105 0.111888 -14.321678 139 156 179 
-0.860215 0.114695 -14.681004 134 151 172 
-0.802867 0.114695 -14.681004 130 146 167 
-0.734982 0.113074 -14.473498 119 136 157 
-0.678445 0.113074 -14.473498 108 124 145 
0.486957 0.034783 -4.452174 126 130 123 
0.504348 0.034783 -4.452174 135 148 143 
0.512821 0.034188 -4.376069 142 158 153 
0.529915 0.034188 -4.376069 158 176 173 
0.547009 0.034188 -4.376069 167 186 187 
0.700565 0.022599 -2.892655 134 116 79 
0.711864 0.022599 -2.892655 133 116 79 
0.723164 0.022599 -2.892655 133 115 79 
-0.611940 0.014925 -3.820895 101 116 136 
-0.597015 0.014925 -3.820895 108 124 145 
-0.582090 0.014925 -3.820895 115 132 151 
-0.566636 0.014911 -3.817335 118 134 155 
-0.551724 0.014911 -3.817335 118 134 158 
-1.512727 0.058182 -14.894546 135 152 174 
-1.413428 0.056537 -14.473498 136 153 177 
-1.333333 0.055556 -14.222222 138 155 177 
-1.277778 0.055556 -14.222222 136 153 177 
-1.230769 0.055944 -14.321678 136 153 177 
-1.174825 0.055944 -14.321678 137 154 177 
-1.114983 0.055749 -14.271777 138 154 177 
-1.051903 0.055363 -14.173011 135 152 175 
-0.993103 0.055172 -14.124138 137 153 175 
-0.944444 0.055556 -14.222222 142 157 180 
-0.888889 0.055556 -14.222222 143 160 181 
-0.854093 0.056940 -14.576512 136 153 174 
-0.797153 0.056940 -14.576512 127 142 162 
-0.732394 0.056338 -14.422535 114 130 150 
-0.673684 0.056140 -14.371930 104 118 138 
-0.617544 0.056140 -14.371930 96 110 130 
0.486957 0.017391 -4.452174 126 129 122 
0.504348 0.017391 -4.452174 134 147 142 
0.512821 0.017094 -4.376069 141 157 152 
0.529915 0.017094 -4.376069 155 172 170 
0.547009 0.017094 -4.376069 165 184 184 
0.700565 0.011299 -2.892655 132 115 78 
0.711864 0.011299 -2.892655 132 115 77 
0.723164 0.011299 -2.892655 132 113 74 
1.987879 0.016162 -4.137374 131 111 73 
1.997986 0.016113 -4.124874 132 112 73 
2.014099 0.016113 -4.124874 131 111 70 
2.028169 0.016097 -4.120724 132 113 73 
-0.626866 0.000000 -3.820895 115 129 149 
-0.611940 0.000000 -3.820895 107 124 144 
-0.596459 0.000000 -3.817335 107 125 146 
-0.581547 0.000000 -3.817335 112 129 149 
-0.566108 0.000000 -3.813780 112 129 149 
-0.551210 0.000000 -3.813780 108 125 147 
-1.413428 0.000000 -14.473498 141 158 182 
-1.356890 0.000000 -14.473498 139 156 180 
-1.291228 0.000000 -14.371930 133 150 173 
-1.243816 0.000000 -14.473498 133 150 173 
-1.187279 0.000000 -14.473498 131 148 171 
-1.118881 0.000000 -14.321678 130 146 168 
-1.059233 0.000000 -14.271777 123 140 162 
-1.003484 0.000000 -14.271777 116 133 154 
-0.944444 0.000000 -14.222222 117 132 151 
-0.904594 0.000000 -14.473498 127 141 161 
-0.851064 0.000000 -14.524822 138 153 171 
-0.791519 0.000000 -14.473498 130 144 164 
-0.729825 0.000000 -14.371930 109 124 146 
-0.668990 0.000000 -14.271777 95 109 130 
-0.455959 0.000000 -10.611399 88 102 122 
-0.411311 0.000000 -10.529563 86 101 124 
0.486957 0.000000 -4.452174 125 127 118 
0.504348 0.000000 -4.452174 134 145 140 
0.512821 0.000000 -4.376069 141 155 151 
0.529915 0.000000 -4.376069 154 169 167 
0.547009 0.000000 -4.376069 164 182 180 
0.700565 0.000000 -2.892655 130 113 77 
0.711864 0.000000 -2.892655 130 113 77 
0.723164 0.000000 -2.892655 130 112 76 
2.296471 0.000000 -4.818823 133 113 72 
1.987879 0.000000 -4.137374 130 111 71 
1.997986 0.000000 -4.124874 131 111 72 
2.012072 0.000000 -4.120724 130 110 71 
2.026131 0.000000 -4.116583 132 112 70 
2.044266 0.000000 -4.120724 132 112 70 
-0.671016 -0.014911 -3.817335 91 106 128 
-0.656104 -0.014911 -3.817335 108 123 143 
-0.641193 -0.014911 -3.817335 111 125 145 
-0.626281 -0.014911 -3.817335 106 122 144 
-0.611370 -0.014911 -3.817335 104 121 141 
-0.596459 -0.014911 -3.817335 107 122 142 
-0.581006 -0.014898 -3.813780 108 125 146 
-0.565581 -0.014884 -3.810233 108 125 146 
-0.550698 -0.014884 -3.810233 108 125 145 
-1.438849 -0.057554 -14.733813 135 150 171 
-1.356890 -0.056537 -14.473498 135 151 172 
-1.304965 -0.056738 -14.524822 130 147 169 
-1.275362 -0.057971 -14.840580 128 145 166 
-1.217391 -0.057971 -14.840580 125 141 163 
-1.138790 -0.056940 -14.576512 122 138 161 
-1.081851 -0.056940 -14.576512 119 135 158 
-1.039711 -0.057762 -14.787004 114 130 149 
-0.907801 -0.056738 -14.524822 90 104 124 
-0.848057 -0.056537 -14.473498 103 115 134 
-0.785965 -0.056140 -14.371930 125 137 155 
-0.724739 -0.055749 -14.271777 109 122 144 
-0.502618 -0.041885 -10.722513 88 103 123 
-0.452442 -0.041131 -10.529563 89 104 124 
-0.407125 -0.040712 -10.422392 105 119 140 
-0.366412 -0.040712 -10.422392 116 129 150 
0.486957 -0.017391 -4.452174 124 127 118 
0.504348 -0.017391 -4.452174 134 144 140 
0.512821 -0.017094 -4.376069 140 154 149 
0.529915 -0.017094 -4.376069 153 168 166 
0.547009 -0.017094 -4.376069 163 180 179 
0.700565 -0.011299 -2.892655 129 112 76 
0.711864 -0.011299 -2.892655 129 112 74 
0.723164 -0.011299 -2.892655 129 112 74 
1.975708 -0.016194 -4.145749 133 112 72 
1.987879 -0.016162 -4.137374 130 109 71 
1.997986 -0.016113 -4.124874 130 110 72 
2.012072 -0.016097 -4.120724 130 111 71 
2.026131 -0.016080 -4.116583 131 112 71 
2.044266 -0.016097 -4.120724 131 112 70 
-0.671016 -0.029823 -3.817335 90 105 124 
-0.656104 -0.029823 -3.817335 111 124 139 
-0.641193 -0.029823 -3.817335 115 126 139 
-0.626281 -0.029823 -3.817335 100 115 131 
-0.610801 -0.029795 -3.813780 93 110 129 
-0.595349 -0.029767 -3.810233 100 116 135 
-0.580465 -0.029767 -3.810233 100 117 138 
-0.565056 -0.029740 -3.806691 106 123 144 
-0.550186 -0.029740 -3.806691 108 125 146 
-1.401460 -0.116788 -14.948905 137 151 169 
-1.347985 -0.117216 -15.003663 127 144 165 
-1.294118 -0.117647 -15.058824 123 140 161 
-1.230769 -0.117216 -15.003663 122 138 157 
-1.163636 -0.116364 -14.894546 120 135 155 
-1.105455 -0.116364 -14.894546 114 130 153 
-0.785965 -0.112281 -14.371930 96 108 127 
-0.722222 -0.111111 -14.222222 106 118 138 
-0.502618 -0.083770 -10.722513 85 97 116 
-0.455959 -0.082902 -10.611399 81 94 115 
-0.409207 -0.081841 -10.475703 90 101 122 
-0.367347 -0.081633 -10.448979 89 99 119 
-0.328205 -0.082051 -10.502564 78 91 112 
0.486957 -0.034783 -4.452174 123 125 116 
0.504348 -0.034783 -4.452174 133 143 139 
0.512821 -0.034188 -4.376069 139 153 149 
0.529915 -0.034188 -4.376069 151 167 164 
0.547009 -0.034188 -4.376069 161 179 177 
0.700565 -0.022599 -2.892655 128 111 75 
0.711864 -0.022599 -2.892655 128 110 73 
0.723164 -0.022599 -2.892655 129 110 74 
1.963489 -0.032454 -4.154158 132 113 73 
1.975708 -0.032389 -4.145749 132 111 70 
1.987879 -0.032323 -4.137374 130 108 69 
1.997986 -0.032226 -4.124874 130 109 70 
2.012072 -0.032193 -4.120724 129 109 68 
2.026131 -0.032161 -4.116583 130 111 69 
2.044266 -0.032193 -4.120724 130 110 69 
-0.742684 -0.048436 -4.133199 83 98 117 
-0.725806 -0.048387 -4.129032 93 105 121 
-0.709677 -0.048387 -4.129032 129 139 147 
-0.693548 -0.048387 -4.129032 134 144 151 
-0.677419 -0.048387 -4.129032 106 121 133 
-0.610801 -0.044693 -3.813780 89 107 125 
-0.595349 -0.044651 -3.810233 96 112 132 
-0.580465 -0.044651 -3.810233 99 115 136 
-0.565056 -0.044610 -3.806691 103 120 141 
-1.383459 -0.180451 -15.398497 129 145 164 
-1.318352 -0.179775 -15.340824 116 133 154 
-1.244444 -0.177778 -15.170370 115 132 152 
-1.172161 -0.175824 -15.003663 115 131 150 
-1.113553 -0.175824 -15.003663 111 127 147 
-0.785965 -0.168421 -14.371930 72 83 101 
-0.579387 -0.133705 -11.409471 96 106 125 
-0.509284 -0.127321 -10.864721 74 85 105 
-0.458333 -0.125000 -10.666667 58 71 95 
-0.410256 -0.123077 -10.502564 61 73 95 
-0.368286 -0.122762 -10.475703 68 82 102 
-0.327366 -0.122762 -10.475703 82 98 119 
-0.287179 -0.123077 -10.502564 98 114 135 
0.486957 -0.052174 -4.452174 123 123 113 
0.504348 -0.052174 -4.452174 132 142 136 
0.512821 -0.051282 -4.376069 138 152 148 
0.529915 -0.051282 -4.376069 151 165 163 
0.547009 -0.051282 -4.376069 160 177 176 
0.700565 -0.033898 -2.892655 127 110 75 
0.711864 -0.033898 -2.892655 128 110 72 
0.723164 -0.033898 -2.892655 129 110 73 
1.947262 -0.048682 -4.154158 131 111 70 
1.959514 -0.048583 -4.145749 132 113 72 
1.973711 -0.048534 -4.141557 132 111 69 
1.987879 -0.048485 -4.137374 130 108 70 
1.997986 -0.048338 -4.124874 130 108 71 
2.014099 -0.048338 -4.124874 129 108 68 
2.028169 -0.048290 -4.120724 130 109 67 
2.044266 -0.048290 -4.120724 131 109 68 
-0.742684 -0.064581 -4.133199 79 95 114 
-0.725806 -0.064516 -4.129032 87 100 118 
-0.709677 -0.064516 -4.129032 125 135 146 
-0.693548 -0.064516 -4.129032 134 146 157 
-1.375000 -0.250000 -16.000000 113 129 148 
-1.258427 -0.239700 -15.340824 112 128 147 
-1.185185 -0.237037 -15.170370 110 127 146 
-1.138577 -0.239700 -15.340824 107 124 144 
-0.579387 -0.178273 -11.409471 86 95 111 
-0.509284 -0.169761 -10.864721 71 83 103 
-0.458333 -0.166667 -10.666667 70 84 104 
-0.410256 -0.164103 -10.502564 81 95 116 
-0.368286 -0.163683 -10.475703 94 109 131 
-0.326531 -0.163265 -10.448979 109 124 145 
-0.287179 -0.164103 -10.502564 111 125 144 
-0.247423 -0.164948 -10.556701 100 116 136 
0.486957 -0.069565 -4.452174 121 122 112 
0.504348 -0.069565 -4.452174 131 141 136 
0.512821 -0.068376 -4.376069 137 152 147 
0.529915 -0.068376 -4.376069 150 165 162 
0.547009 -0.068376 -4.376069 159 177 175 
0.700565 -0.045198 -2.892655 127 109 73 
0.711864 -0.045198 -2.892655 128 110 73 
0.723164 -0.045198 -2.892655 129 109 72 
1.940877 -0.065240 -4.175331 130 111 70 
1.947262 -0.064909 -4.154158 131 111 71 
1.959514 -0.064777 -4.145749 131 112 72 
1.973711 -0.064712 -4.141557 131 111 71 
1.987879 -0.064646 -4.137374 130 109 71 
1.997986 -0.064451 -4.124874 129 108 73 
2.014099 -0.064451 -4.124874 129 107 67 
2.028169 -0.064386 -4.120724 129 110 66 
2.044266 -0.064386 -4.120724 129 110 67 
2.060362 -0.064386 -4.120724 128 107 67 
-0.758829 -0.080727 -4.133199 81 96 113 
-0.741935 -0.080645 -4.129032 76 91 110 
-0.725806 -0.080645 -4.129032 81 94 113 
-0.709677 -0.080645 -4.129032 99 111 127 
-0.693548 -0.080645 -4.129032 110 124 140 
-0.677419 -0.080645 -4.129032 106 121 140 
-1.312500 -0.312500 -16.000000 110 126 146 
-1.250000 -0.312500 -16.000000 107 124 144 
-0.579387 -0.222841 -11.409471 71 79 94 
-0.509284 -0.212202 -10.864721 72 84 102 
-0.458333 -0.208333 -10.666667 87 101 118 
-0.408163 -0.204082 -10.448979 103 119 136 
-0.362720 -0.201511 -10.317380 112 128 147 
-0.321608 -0.201005 -10.291457 108 122 143 
-0.281407 -0.201005 -10.291457 96 111 131 
-0.243655 -0.203046 -10.395939 98 113 133 
0.486957 -0.086957 -4.452174 119 119 108 
0.504348 -0.086957 -4.452174 129 140 134 
0.512821 -0.085470 -4.376069 136 151 146 
0.529915 -0.085470 -4.376069 149 163 160 
0.547009 -0.085470 -4.376069 159 176 175 
0.700565 -0.056497 -2.892655 127 110 73 
0.711864 -0.056497 -2.892655 127 109 74 
0.723164 -0.056497 -2.892655 128 108 72 
1.940877 -0.081549 -4.175331 130 110 70 
1.947262 -0.081136 -4.154158 130 111 70 
1.959514 -0.080972 -4.145749 131 112 72 
1.973711 -0.080890 -4.141557 131 111 72 
1.987879 -0.080808 -4.137374 129 109 70 
1.997986 -0.080564 -4.124874 129 109 70 
2.014099 -0.080564 -4.124874 127 107 68 
2.030211 -0.080564 -4.124874 128 110 68 
2.044266 -0.080483 -4.120724 128 109 68 
2.060362 -0.080483 -4.120724 127 106 67 
-0.758065 -0.096774 -4.129032 81 95 112 
-0.741935 -0.096774 -4.129032 75 89 107 
-0.725806 -0.096774 -4.129032 77 89 109 
-0.709677 -0.096774 -4.129032 77 89 109 
-0.693548 -0.096774 -4.129032 89 103 123 
-0.677419 -0.096774 -4.129032 98 112 133 
-0.579387 -0.267409 -11.409471 54 64 79 
-0.505263 -0.252632 -10.778948 54 65 83 
-0.453608 -0.247423 -10.556701 64 77 94 
-0.403023 -0.241814 -10.317380 81 94 110 
-0.360000 -0.240000 -10.240000 92 104 121 
-0.318408 -0.238806 -10.189054 88 100 119 
-0.280702 -0.240602 -10.265664 84 97 116 
0.486957 -0.104348 -4.452174 118 118 104 
0.504348 -0.104348 -4.452174 128 139 132 
0.512821 -0.102564 -4.376069 135 150 144 
0.529915 -0.102564 -4.376069 148 161 159 
0.547009 -0.102564 -4.376069 158 174 172 
0.700565 -0.067797 -2.892655 127 109 72 
0.711864 -0.067797 -2.892655 127 109 73 
0.723164 -0.067797 -2.892655 127 108 73 
1.942857 -0.097959 -4.179592 130 110 71 
1.947262 -0.097363 -4.154158 130 111 71 
1.959514 -0.097166 -4.145749 130 112 73 
1.973711 -0.097068 -4.141557 129 110 71 
1.987879 -0.096970 -4.137374 128 107 69 
1.997986 -0.096677 -4.124874 128 107 70 
2.014099 -0.096677 -4.124874 127 105 67 
2.030211 -0.096677 -4.124874 128 109 68 
2.046324 -0.096677 -4.124874 127 109 68 
2.062437 -0.096677 -4.124874 126 106 67 
-0.758065 -0.112903 -4.129032 78 92 110 
-0.741935 -0.112903 -4.129032 77 91 109 
-0.725806 -0.112903 -4.129032 82 97 116 
-0.709677 -0.112903 -4.129032 85 99 119 
-0.693548 -0.112903 -4.129032 85 100 119 
-0.675377 -0.112563 -4.116583 91 105 126 
-0.659296 -0.112563 -4.116583 92 108 128 
-0.720000 -0.140000 -5.120000 98 114 133 
-0.698254 -0.139651 -5.107232 99 116 135 
-0.680000 -0.140000 -5.120000 103 121 142 
-0.547368 -0.294737 -10.778948 52 61 77 
-0.494845 -0.288660 -10.556701 52 61 79 
-0.446701 -0.284264 -10.395939 55 65 82 
-0.400000 -0.280000 -10.240000 61 71 86 
-0.356436 -0.277228 -10.138614 66 75 91 
-0.316049 -0.276543 -10.113581 68 76 94 
-0.277228 -0.277228 -10.138614 71 81 97 
-0.066390 -0.232365 -8.497926 125 139 159 
-0.033195 -0.232365 -8.497926 124 139 158 
0.000000 -0.231405 -8.462810 127 143 164 
0.032990 -0.230928 -8.445361 134 150 172 
0.486957 -0.121739 -4.452174 117 116 104 
0.504348 -0.121739 -4.452174 126 136 131 
0.512821 -0.119658 -4.376069 134 148 144 
0.529915 -0.119658 -4.376069 145 159 156 
0.547009 -0.119658 -4.376069 155 171 168 
0.700565 -0.079096 -2.892655 128 109 72 
0.711864 -0.079096 -2.892655 127 109 74 
0.723164 -0.079096 -2.892655 127 108 74 
1.947262 -0.113590 -4.154158 129 110 72 
1.959514 -0.113360 -4.145749 130 111 73 
1.973711 -0.113246 -4.141557 129 110 70 
1.987879 -0.113131 -4.137374 127 107 69 
1.997986 -0.112790 -4.124874 128 107 70 
2.014099 -0.112790 -4.124874 127 106 69 
2.030211 -0.112790 -4.124874 127 108 70 
2.046324 -0.112790 -4.124874 126 108 70 
2.062437 -0.112790 -4.124874 125 106 68 
-0.758065 -0.129032 -4.129032 82 96 114 
-0.741935 -0.129032 -4.129032 83 99 118 
-0.725806 -0.129032 -4.129032 91 107 127 
-0.709677 -0.129032 -4.129032 99 116 135 
-0.693548 -0.129032 -4.129032 101 117 135 
-0.674699 -0.128514 -4.112450 97 111 132 
-0.658635 -0.128514 -4.112450 95 111 132 
-0.809102 -0.161820 -5.178256 92 107 128 
-0.768647 -0.161820 -5.178256 91 107 128 
-0.737235 -0.159402 -5.100872 93 109 129 
-0.711990 -0.158220 -5.063041 95 110 130 
-0.695652 -0.159006 -5.088199 100 116 135 
-0.678304 -0.159601 -5.107232 103 119 139 
-0.583333 -0.333333 -10.666667 46 55 71 
-0.533333 -0.328205 -10.502564 51 61 75 
-0.487310 -0.324873 -10.395939 53 64 80 
-0.443325 -0.322418 -10.317380 55 66 84 
-0.398010 -0.318408 -10.189054 59 71 87 
-0.353808 -0.314496 -10.063882 64 74 91 
-0.314496 -0.314496 -10.063882 68 78 96 
-0.135881 -0.271762 -8.696391 109 122 139 
-0.100000 -0.266667 -8.533334 115 128 146 
-0.066390 -0.265560 -8.497926 118 133 151 
-0.033058 -0.264463 -8.462810 125 140 158 
0.000000 -0.263918 -8.445361 129 145 166 
0.032990 -0.263918 -8.445361 131 148 168 
0.486957 -0.139130 -4.452174 117 115 105 
0.504348 -0.139130 -4.452174 124 134 129 
0.512821 -0.136752 -4.376069 134 147 141 
0.529915 -0.136752 -4.376069 144 158 153 
0.547009 -0.136752 -4.376069 154 168 166 
0.700565 -0.090395 -2.892655 127 109 74 
0.711864 -0.090395 -2.892655 127 110 75 
0.723164 -0.090395 -2.892655 126 108 76 
1.947262 -0.129817 -4.154158 129 109 72 
1.959514 -0.129555 -4.145749 131 110 72 
1.973711 -0.129424 -4.141557 130 110 70 
1.985873 -0.129162 -4.133199 127 107 68 
1.997986 -0.128902 -4.124874 128 108 68 
2.014099 -0.128902 -4.124874 127 106 68 
2.030211 -0.128902 -4.124874 128 108 70 
2.046324 -0.128902 -4.124874 128 107 68 
2.062437 -0.128902 -4.124874 126 105 66 
-0.758065 -0.145161 -4.129032 85 100 119 
-0.741935 -0.145161 -4.129032 89 105 124 
-0.725806 -0.145161 -4.129032 91 108 127 
-0.709677 -0.145161 -4.129032 92 109 128 
-0.692850 -0.145015 -4.124874 94 110 128 
-0.674699 -0.144578 -4.112450 96 110 131 
-0.655345 -0.143856 -4.091908 92 107 128 
-0.639361 -0.143856 -4.091908 86 101 123 
-0.778055 -0.179551 -5.107232 83 98 121 
-0.757161 -0.179328 -5.100872 88 104 125 
-0.729064 -0.177340 -5.044335 92 108 129 
-0.708487 -0.177122 -5.038130 94 108 129 
-0.690506 -0.177559 -5.050555 97 112 132 
-0.675776 -0.178882 -5.088199 100 116 135 
-0.646465 -0.363636 -10.343434 102 116 132 
-0.610687 -0.366412 -10.422392 61 71 87 
-0.569975 -0.366412 -10.422392 45 55 68 
-0.527919 -0.365482 -10.395939 53 64 75 
-0.484848 -0.363636 -10.343434 59 70 84 
-0.442211 -0.361809 -10.291457 64 76 92 
-0.397022 -0.357320 -10.163772 68 82 97 
-0.356436 -0.356436 -10.138614 72 86 103 
-0.172786 -0.311015 -8.846652 92 106 123 
-0.134737 -0.303158 -8.623158 98 112 131 
-0.100418 -0.301255 -8.569037 110 124 142 
-0.066528 -0.299376 -8.515593 116 132 150 
-0.033195 -0.298755 -8.497926 124 140 158 
0.000000 -0.296907 -8.445361 137 154 170 
0.032990 -0.296907 -8.445361 149 166 179 
0.486957 -0.156522 -4.452174 118 114 101 
0.504348 -0.156522 -4.452174 124 133 126 
0.512821 -0.153846 -4.376069 134 146 139 
0.529915 -0.153846 -4.376069 142 156 150 
0.547009 -0.153846 -4.376069 153 166 164 
0.700565 -0.101695 -2.892655 127 109 73 
0.711864 -0.101695 -2.892655 127 109 74 
0.723164 -0.101695 -2.892655 126 109 76 
1.945289 -0.145897 -4.149950 129 109 71 
1.957533 -0.145602 -4.141557 130 110 70 
1.971717 -0.145455 -4.137374 129 109 70 
1.983871 -0.145161 -4.129032 127 106 68 
1.997986 -0.145015 -4.124874 127 107 69 
2.014099 -0.145015 -4.124874 126 105 69 
2.030211 -0.145015 -4.124874 127 108 69 
2.046324 -0.145015 -4.124874 126 107 64 
2.062437 -0.145015 -4.124874 124 104 63 
-0.758065 -0.161290 -4.129032 89 104 123 
-0.740443 -0.160966 -4.120724 91 107 125 
-0.725076 -0.161128 -4.124874 89 105 123 
-0.708963 -0.161128 -4.124874 82 97 114 
-0.692153 -0.160966 -4.120724 76 90 108 
-0.674699 -0.160643 -4.112450 79 93 112 
-0.654691 -0.159681 -4.087824 80 95 115 
-0.638723 -0.159681 -4.087824 80 96 117 
-0.777086 -0.199253 -5.100872 84 99 121 
-0.757161 -0.199253 -5.100872 91 105 126 
-0.727273 -0.196560 -5.031941 95 110 131 
-0.706748 -0.196319 -5.025767 94 107 128 
-0.688807 -0.196802 -5.038130 95 108 128 
-0.674938 -0.198511 -5.081886 98 112 131 
-0.681704 -0.401002 -10.265664 104 120 137 
-0.643216 -0.402010 -10.291457 102 116 131 
-0.604534 -0.403023 -10.317380 62 72 86 
-0.565657 -0.404040 -10.343434 46 55 68 
-0.525253 -0.404040 -10.343434 52 63 77 
-0.483627 -0.403023 -10.317380 57 68 83 
-0.440000 -0.400000 -10.240000 61 72 87 
-0.396040 -0.396040 -10.138614 65 76 91 
-0.356436 -0.396040 -10.138614 68 80 97 
-0.208696 -0.347826 -8.904347 85 96 111 
-0.170576 -0.341151 -8.733476 91 104 121 
-0.134737 -0.336842 -8.623158 101 115 132 
-0.100418 -0.334728 -8.569037 111 124 141 
-0.066806 -0.334029 -8.551148 121 135 149 
-0.033264 -0.332640 -8.515593 143 156 168 
0.000000 -0.329897 -8.445361 163 179 187 
0.032990 -0.329897 -8.445361 174 192 198 
0.486957 -0.173913 -4.452174 120 114 100 
0.504348 -0.173913 -4.452174 124 131 124 
0.512821 -0.170940 -4.376069 133 145 139 
0.529915 -0.170940 -4.376069 140 154 149 
0.547009 -0.170940 -4.376069 152 166 162 
0.700565 -0.112994 -2.892655 125 108 74 
0.711864 -0.112994 -2.892655 126 108 76 
0.723164 -0.112994 -2.892655 126 107 75 
1.943320 -0.161943 -4.145749 129 108 70 
1.955556 -0.161616 -4.137374 129 110 69 
1.969728 -0.161453 -4.133199 127 109 70 
1.983871 -0.161290 -4.129032 125 105 69 
1.997986 -0.161128 -4.124874 125 104 70 
2.014099 -0.161128 -4.124874 125 103 69 
2.028169 -0.160966 -4.120724 126 107 68 
2.044266 -0.160966 -4.120724 125 106 63 
2.060362 -0.160966 -4.120724 124 103 65 
-0.756539 -0.177062 -4.120724 93 109 128 
-0.739698 -0.176884 -4.116583 90 106 125 
-0.723618 -0.176884 -4.116583 90 106 126 
-0.707538 -0.176884 -4.116583 94 108 124 
-0.690763 -0.176707 -4.112450 91 105 120 
-0.674022 -0.176530 -4.108325 89 104 121 
-0.654691 -0.175649 -4.087824 85 99 118 
-0.638723 -0.175649 -4.087824 82 96 115 
-0.776119 -0.218905 -5.094527 89 103 123 
-0.756219 -0.218905 -5.094527 90 106 126 
-0.724602 -0.215422 -5.013464 90 106 128 
-0.703297 -0.214896 -5.001221 92 106 127 
-0.686275 -0.215686 -5.019608 92 105 125 
-0.720000 -0.440000 -10.240000 104 119 137 
-0.680000 -0.440000 -10.240000 105 119 136 
-0.641604 -0.441103 -10.265664 98 111 128 
-0.604534 -0.443325 -10.317380 62 70 84 
-0.565657 -0.444444 -10.343434 48 54 68 
-0.525253 -0.444444 -10.343434 54 63 78 
-0.482412 -0.442211 -10.291457 60 70 85 
-0.440000 -0.440000 -10.240000 64 74 88 
-0.395062 -0.434568 -10.113581 68 77 91 
-0.355556 -0.434568 -10.113581 73 82 100 
-0.208696 -0.382609 -8.904347 87 99 114 
-0.171306 -0.376874 -8.770878 94 104 119 
-0.135307 -0.372093 -8.659619 98 106 119 
-0.101053 -0.370526 -8.623158 98 104 114 
-0.066806 -0.367432 -8.551148 122 129 136 
-0.033264 -0.365904 -8.515593 168 180 185 
0.000000 -0.362887 -8.445361 179 196 201 
0.032990 -0.362887 -8.445361 179 198 204 
0.486957 -0.191304 -4.452174 121 116 104 
0.504348 -0.191304 -4.452174 125 132 125 
0.512821 -0.188034 -4.376069 133 144 137 
0.529915 -0.188034 -4.376069 140 152 147 
0.547009 -0.188034 -4.376069 153 164 161 
0.700565 -0.124294 -2.892655 124 107 71 
0.711864 -0.124294 -2.892655 124 107 73 
0.723164 -0.124294 -2.892655 124 106 75 
1.939394 -0.177778 -4.137374 128 108 70 
1.953582 -0.177598 -4.133199 128 109 70 
1.967742 -0.177419 -4.129032 126 108 69 
1.983871 -0.177419 -4.129032 123 103 69 
1.995976 -0.177062 -4.120724 124 102 70 
2.012072 -0.177062 -4.120724 124 103 68 
2.028169 -0.177062 -4.120724 125 107 69 
2.044266 -0.177062 -4.120724 124 106 67 
2.060362 -0.177062 -4.120724 123 103 66 
-0.755779 -0.192965 -4.116583 99 115 136 
-0.738215 -0.192578 -4.108325 93 109 128 
-0.722166 -0.192578 -4.108325 91 107 128 
-0.706118 -0.192578 -4.108325 95 111 130 
-0.690070 -0.192578 -4.108325 97 112 130 
-0.673347 -0.192385 -4.104208 97 111 131 
-0.654038 -0.191426 -4.083749 94 107 128 
-0.638086 -0.191426 -4.083749 86 100 121 
-0.721072 -0.233861 -4.989038 88 103 123 
-0.695652 -0.231884 -4.946860 91 105 126 
-0.682095 -0.233861 -4.989038 93 107 127 
-0.721804 -0.481203 -10.265664 101 116 134 
-0.681704 -0.481203 -10.265664 102 117 135 
-0.643216 -0.482412 -10.291457 91 104 121 
-0.604534 -0.483627 -10.317380 54 60 73 
-0.564232 -0.483627 -10.317380 48 50 60 
-0.523929 -0.483627 -10.317380 57 60 69 
-0.481203 -0.481203 -10.265664 63 68 79 
-0.440000 -0.480000 -10.240000 69 73 84 
-0.395062 -0.474074 -10.113581 73 76 87 
-0.355556 -0.474074 -10.113581 77 81 95 
-0.208696 -0.417391 -8.904347 77 79 91 
-0.171306 -0.411135 -8.770878 77 77 86 
-0.135307 -0.405920 -8.659619 78 76 81 
-0.101266 -0.405063 -8.641350 84 81 84 
-0.066806 -0.400835 -8.551148 116 118 119 
-0.033264 -0.399168 -8.515593 169 181 182 
0.000000 -0.395876 -8.445361 179 196 200 
0.032990 -0.395876 -8.445361 178 197 203 
0.486957 -0.208696 -4.452174 123 117 106 
0.504348 -0.208696 -4.452174 126 132 125 
0.512821 -0.205128 -4.376069 132 143 136 
0.529915 -0.205128 -4.376069 140 152 146 
0.547009 -0.205128 -4.376069 153 165 162 
0.700565 -0.135593 -2.892655 123 105 70 
0.711864 -0.135593 -2.892655 124 106 72 
0.723164 -0.135593 -2.892655 123 106 75 
1.937437 -0.193744 -4.133199 127 107 68 
1.951613 -0.193548 -4.129032 126 108 69 
1.967742 -0.193548 -4.129032 125 106 66 
1.981873 -0.193353 -4.124874 123 102 67 
1.995976 -0.193159 -4.120724 124 102 69 
2.012072 -0.193159 -4.120724 123 102 67 
2.028169 -0.193159 -4.120724 124 105 67 
2.044266 -0.193159 -4.120724 123 104 67 
2.062437 -0.193353 -4.124874 122 102 64 
-0.738215 -0.208626 -4.108325 93 108 128 
-0.722166 -0.208626 -4.108325 89 101 122 
-0.706118 -0.208626 -4.108325 85 98 116 
-0.690070 -0.208626 -4.108325 79 92 111 
-0.673347 -0.208417 -4.104208 79 92 113 
-0.657315 -0.208417 -4.104208 90 103 124 
-0.717576 -0.252121 -4.964849 89 102 123 
-0.693976 -0.250602 -4.934940 91 105 126 
-0.675513 -0.250905 -4.940893 92 106 127 
-0.721804 -0.521303 -10.265664 100 114 134 
-0.681704 -0.521303 -10.265664 102 116 135 
-0.643216 -0.522613 -10.291457 75 86 102 
-0.604534 -0.523929 -10.317380 42 47 56 
-0.564232 -0.523929 -10.317380 47 48 53 
-0.523929 -0.523929 -10.317380 57 56 60 
-0.481203 -0.521303 -10.265664 66 62 67 
-0.440000 -0.520000 -10.240000 73 69 74 
-0.394089 -0.512315 -10.088670 79 74 78 
-0.354680 -0.512315 -10.088670 83 76 81 
-0.208243 -0.451193 -8.885033 81 74 76 
-0.170940 -0.444444 -8.752137 84 76 77 
-0.135593 -0.440678 -8.677966 90 81 80 
-0.101266 -0.438819 -8.641350 96 89 88 
-0.066946 -0.435146 -8.569037 118 115 116 
-0.033264 -0.432432 -8.515593 166 174 175 
0.000000 -0.428866 -8.445361 179 194 198 
0.032990 -0.428866 -8.445361 178 196 201 
0.486957 -0.226087 -4.452174 125 118 106 
0.504348 -0.226087 -4.452174 126 131 123 
0.512821 -0.222222 -4.376069 132 143 136 
0.529915 -0.222222 -4.376069 141 151 144 
0.547009 -0.222222 -4.376069 155 166 162 
0.700565 -0.146893 -2.892655 122 105 72 
0.711864 -0.146893 -2.892655 123 105 75 
0.723164 -0.146893 -2.892655 123 106 75 
1.935484 -0.209677 -4.129032 125 107 67 
1.951613 -0.209677 -4.129032 126 108 67 
1.967742 -0.209677 -4.129032 125 105 65 
1.981873 -0.209466 -4.124874 122 102 63 
1.995976 -0.209256 -4.120724 123 102 66 
2.012072 -0.209256 -4.120724 122 102 66 
2.028169 -0.209256 -4.120724 123 104 67 
2.046324 -0.209466 -4.124874 123 102 64 
2.062437 -0.209466 -4.124874 121 100 62 
-0.840183 -0.255708 -4.675799 92 107 129 
-0.820046 -0.255125 -4.665148 83 94 113 
-0.706118 -0.224674 -4.108325 80 91 107 
-0.690070 -0.224674 -4.108325 77 89 108 
-0.674022 -0.224674 -4.108325 73 86 107 
-0.708423 -0.241901 -4.423326 87 102 122 
-0.693976 -0.269880 -4.934940 92 107 125 
-0.721804 -0.561404 -10.265664 105 119 139 
-0.683417 -0.562814 -10.291457 102 115 135 
-0.643216 -0.562814 -10.291457 60 69 84 
-0.604534 -0.564232 -10.317380 38 40 47 
-0.565657 -0.565657 -10.343434 47 47 50 
-0.523929 -0.564232 -10.317380 59 55 57 
-0.481203 -0.561404 -10.265664 70 63 67 
-0.440000 -0.560000 -10.240000 81 73 76 
-0.394089 -0.551724 -10.088670 92 81 82 
-0.354680 -0.551724 -10.088670 99 87 86 
-0.207792 -0.484848 -8.865801 104 93 88 
-0.170940 -0.478632 -8.752137 106 95 89 
-0.135593 -0.474576 -8.677966 108 97 90 
-0.101266 -0.472574 -8.641350 110 100 96 
-0.066946 -0.468619 -8.569037 121 116 114 
-0.033333 -0.466667 -8.533334 162 168 169 
0.000000 -0.462810 -8.462810 178 193 197 
0.033058 -0.462810 -8.462810 177 195 198 
0.486957 -0.243478 -4.452174 125 118 107 
0.504348 -0.243478 -4.452174 125 131 122 
0.512821 -0.239316 -4.376069 132 143 135 
0.529915 -0.239316 -4.376069 142 152 144 
0.547009 -0.239316 -4.376069 157 166 162 
0.700565 -0.158192 -2.892655 123 105 73 
0.711864 -0.158192 -2.892655 123 106 77 
0.723164 -0.158192 -2.892655 123 106 77 
1.935484 -0.225806 -4.129032 124 104 66 
1.951613 -0.225806 -4.129032 126 107 66 
1.965760 -0.225579 -4.124874 125 105 65 
1.981873 -0.225579 -4.124874 122 102 63 
1.995976 -0.225352 -4.120724 122 103 63 
2.012072 -0.225352 -4.120724 121 102 62 
2.030211 -0.225579 -4.124874 122 103 66 
2.046324 -0.225579 -4.124874 123 102 63 
-0.842105 -0.274600 -4.686499 102 117 139 
-0.820981 -0.273660 -4.670467 96 111 131 
-0.801822 -0.273349 -4.665148 92 106 124 
-0.782708 -0.273038 -4.659841 90 105 123 
-0.723618 -0.603015 -10.291457 107 120 140 
-0.683417 -0.603015 -10.291457 103 116 134 
-0.644836 -0.604534 -10.317380 58 64 79 
-0.606061 -0.606061 -10.343434 38 40 48 
-0.567089 -0.607595 -10.369620 48 47 49 
-0.527919 -0.609137 -10.395939 60 54 56 
-0.483627 -0.604534 -10.317380 72 64 68 
-0.440000 -0.600000 -10.240000 84 75 77 
-0.395062 -0.592593 -10.113581 95 84 83 
-0.354680 -0.591133 -10.088670 105 93 91 
-0.207792 -0.519481 -8.865801 115 102 95 
-0.170940 -0.512821 -8.752137 116 103 95 
-0.135881 -0.509554 -8.696391 118 104 96 
-0.101695 -0.508475 -8.677966 118 107 100 
-0.066946 -0.502092 -8.569037 122 115 112 
-0.033403 -0.501044 -8.551148 156 159 159 
0.000000 -0.497925 -8.497926 176 190 193 
0.033195 -0.497925 -8.497926 176 194 196 
0.486957 -0.260870 -4.452174 126 117 106 
0.504348 -0.260870 -4.452174 124 130 122 
0.512821 -0.256410 -4.376069 131 142 135 
0.529915 -0.256410 -4.376069 141 151 146 
0.547009 -0.256410 -4.376069 157 166 163 
0.700565 -0.169492 -2.892655 123 105 72 
0.711864 -0.169492 -2.892655 123 106 75 
0.723164 -0.169492 -2.892655 122 105 76 
1.951613 -0.241935 -4.129032 124 105 65 
1.965760 -0.241692 -4.124874 123 105 65 
1.981873 -0.241692 -4.124874 120 102 65 
1.997986 -0.241692 -4.124874 121 103 64 
2.014099 -0.241692 -4.124874 120 101 61 
-0.860412 -0.292906 -4.686499 107 122 140 
-0.840183 -0.292237 -4.675799 105 121 142 
-0.820046 -0.291572 -4.665148 103 119 141 
-0.800910 -0.291240 -4.659841 101 117 137 
-0.783599 -0.291572 -4.665148 97 114 133 
-0.691145 -0.276458 -4.423326 99 117 136 
-0.673866 -0.276458 -4.423326 93 111 130 
-0.686869 -0.646465 -10.343434 102 115 134 
-0.646465 -0.646465 -10.343434 64 71 87 
-0.613811 -0.654731 -10.475703 39 42 49 
-0.572890 -0.654731 -10.475703 48 47 49 
-0.531969 -0.654731 -10.475703 59 55 56 
-0.487310 -0.649746 -10.395939 71 64 68 
-0.445570 -0.648101 -10.369620 83 74 74 
-0.400000 -0.640000 -10.240000 95 83 81 
-0.351220 -0.624390 -9.990244 106 94 91 
-0.306220 -0.612440 -9.799043 114 101 96 
-0.241901 -0.552916 -8.846652 117 104 98 
-0.205128 -0.547009 -8.752137 119 106 99 
-0.170213 -0.544681 -8.714893 121 106 98 
-0.136170 -0.544681 -8.714893 123 108 100 
-0.101911 -0.543524 -8.696391 122 109 102 
-0.067511 -0.540084 -8.641350 124 115 110 
-0.033473 -0.535565 -8.569037 149 150 149 
0.000000 -0.534447 -8.551148 174 186 190 
0.039604 -0.633663 -10.138614 174 193 195 
0.486957 -0.278261 -4.452174 126 116 102 
0.504348 -0.278261 -4.452174 123 129 121 
0.512821 -0.273504 -4.376069 131 142 136 
0.529915 -0.273504 -4.376069 141 151 146 
0.547009 -0.273504 -4.376069 157 166 162 
0.700565 -0.180791 -2.892655 122 104 72 
0.711864 -0.180791 -2.892655 122 104 74 
0.723164 -0.180791 -2.892655 122 104 74 
1.967742 -0.258065 -4.129032 122 103 65 
1.983871 -0.258065 -4.129032 120 102 66 
-0.858447 -0.310502 -4.675799 104 121 141 
-0.838269 -0.309795 -4.665148 107 123 143 
-0.819113 -0.309443 -4.659841 109 124 143 
-0.800000 -0.309091 -4.654545 107 122 142 
-0.781818 -0.309091 -4.654545 105 121 140 
-0.690399 -0.293420 -4.418554 101 118 138 
-0.673139 -0.293420 -4.418554 98 115 135 
-0.746356 -0.793003 -11.941691 82 89 99 
-0.699708 -0.793003 -11.941691 46 47 50 
-0.455959 -0.704663 -10.611399 83 73 73 
-0.405063 -0.688608 -10.369620 94 82 83 
-0.311015 -0.587473 -8.846652 106 94 92 
-0.272921 -0.579957 -8.733476 115 103 97 
-0.239316 -0.581197 -8.752137 120 108 100 
-0.205128 -0.581197 -8.752137 123 110 101 
-0.170576 -0.579957 -8.733476 125 111 101 
-0.136170 -0.578723 -8.714893 127 112 102 
-0.102128 -0.578723 -8.714893 125 111 103 
-0.068085 -0.578723 -8.714893 125 115 109 
-0.034043 -0.578723 -8.714893 144 145 144 
0.080000 -0.680000 -10.240000 175 193 195 
0.119701 -0.678304 -10.214464 175 192 195 
0.160000 -0.680000 -10.240000 175 192 194 
0.486957 -0.295652 -4.452174 127 113 103 
0.504348 -0.295652 -4.452174 122 125 119 
0.512821 -0.290598 -4.376069 130 140 135 
0.529915 -0.290598 -4.376069 140 149 143 
0.547009 -0.290598 -4.376069 156 163 159 
0.700565 -0.192090 -2.892655 122 104 72 
0.711864 -0.192090 -2.892655 122 104 75 
0.723164 -0.192090 -2.892655 122 104 76 
-0.856492 -0.328018 -4.665148 110 127 147 
-0.837315 -0.327645 -4.659841 110 126 145 
-0.818182 -0.327273 -4.654545 106 122 141 
-0.798186 -0.326531 -4.643991 102 119 139 
-0.778281 -0.325792 -4.633484 100 118 139 
-0.760181 -0.325792 -4.633484 100 117 139 
-0.724062 -0.317881 -4.520971 104 119 140 
-0.690399 -0.310680 -4.418554 107 123 141 
-0.673139 -0.310680 -4.418554 105 120 140 
-0.651661 -0.308682 -4.390139 98 114 135 
-0.757396 -0.852071 -12.118343 101 109 116 
-0.710059 -0.852071 -12.118343 54 56 58 
-0.364557 -0.729114 -10.369620 106 93 92 
-0.272921 -0.614073 -8.733476 116 103 98 
-0.239316 -0.615385 -8.752137 121 108 102 
-0.205128 -0.615385 -8.752137 124 112 104 
-0.170940 -0.615385 -8.752137 126 113 103 
-0.137045 -0.616702 -8.770878 128 113 102 
-0.102564 -0.615385 -8.752137 128 113 105 
-0.068522 -0.616702 -8.770878 126 114 110 
0.080000 -0.720000 -10.240000 174 191 194 
0.119701 -0.718204 -10.214464 175 192 195 
0.159601 -0.718204 -10.214464 175 192 194 
0.199501 -0.718204 -10.214464 175 192 193 
0.486957 -0.313043 -4.452174 126 112 103 
0.504348 -0.313043 -4.452174 122 124 118 
0.512821 -0.307692 -4.376069 129 139 134 
0.529915 -0.307692 -4.376069 139 147 143 
0.547009 -0.307692 -4.376069 156 161 158 
0.700565 -0.203390 -2.892655 122 103 72 
0.711864 -0.203390 -2.892655 122 103 75 
0.723164 -0.203390 -2.892655 121 104 76 
-0.856492 -0.346241 -4.665148 106 123 143 
-0.837315 -0.345848 -4.659841 107 122 142 
-0.817253 -0.345062 -4.649262 105 121 141 
-0.796380 -0.343891 -4.633484 105 122 142 
-0.776524 -0.343115 -4.623025 106 124 145 
-0.755056 -0.341573 -4.602247 105 123 144 
-0.715376 -0.331516 -4.466739 107 122 143 
-0.690399 -0.327940 -4.418554 108 123 142 
-0.668810 -0.325831 -4.390139 106 121 141 
-0.649573 -0.324786 -4.376069 98 114 134 
-0.631130 -0.324094 -4.366738 94 110 129 
-1.823529 -1.117647 -15.058824 88 102 123 
-1.764706 -1.117647 -15.058824 87 101 123 
-1.705882 -1.117647 -15.058824 92 107 129 
-0.941176 -0.941176 -12.681114 104 117 137 
-0.867470 -0.915663 -12.337349 103 118 137 
-0.809524 -0.904762 -12.190476 109 122 138 
-0.757396 -0.899408 -12.118343 121 131 135 
-0.710059 -0.899408 -12.118343 66 71 71 
-0.670659 -0.910180 -12.263474 47 49 52 
-0.624625 -0.912913 -12.300301 56 55 58 
-0.173160 -0.658009 -8.865801 127 112 101 
-0.137931 -0.655172 -8.827586 128 113 101 
-0.103226 -0.653763 -8.808602 128 113 105 
-0.068966 -0.655172 -8.827586 127 115 110 
0.080000 -0.760000 -10.240000 173 190 193 
0.119701 -0.758105 -10.214464 174 191 193 
0.159601 -0.758105 -10.214464 174 191 194 
0.199501 -0.758105 -10.214464 174 191 193 
0.246154 -0.467692 -6.301538 125 136 141 
0.270769 -0.467692 -6.301538 117 113 104 
0.486957 -0.330435 -4.452174 127 110 101 
0.504348 -0.330435 -4.452174 123 123 118 
0.512821 -0.324786 -4.376069 128 136 134 
0.529915 -0.324786 -4.376069 138 145 142 
0.547009 -0.324786 -4.376069 155 158 156 
0.700565 -0.214689 -2.892655 121 103 73 
0.711864 -0.214689 -2.892655 121 103 73 
0.723164 -0.214689 -2.892655 121 103 75 
-0.856492 -0.364465 -4.665148 102 119 142 
-0.836364 -0.363636 -4.654545 104 120 142 
-0.816327 -0.362812 -4.643991 104 120 142 
-0.794582 -0.361174 -4.623025 107 122 144 
-0.775648 -0.360767 -4.617813 110 126 146 
-0.741722 -0.353201 -4.520971 107 124 144 
-0.713819 -0.348205 -4.457018 106 122 143 
-0.689655 -0.344828 -4.413793 107 123 144 
-0.667380 -0.342246 -4.380749 107 123 145 
-0.647497 -0.340788 -4.362087 104 121 140 
-0.630458 -0.340788 -4.362087 103 118 138 
-0.614073 -0.341151 -4.366738 100 116 137 
-1.934066 -1.172161 -15.003663 91 105 128 
-1.855072 -1.159420 -14.840580 90 104 126 
-1.797101 -1.159420 -14.840580 88 102 125 
-1.739130 -1.159420 -14.840580 87 101 123 
-1.681159 -1.159420 -14.840580 90 103 125 
-1.623188 -1.159420 -14.840580 108 122 142 
-1.553957 -1.151079 -14.733813 128 143 161 
-1.480427 -1.138790 -14.576512 120 136 153 
-1.408451 -1.126761 -14.422535 95 111 131 
-1.315068 -1.095890 -14.027397 87 101 120 
-1.019108 -1.019108 -13.044586 103 116 135 
-0.926829 -0.975610 -12.487804 106 119 139 
-0.867470 -0.963855 -12.337349 107 121 141 
-0.811940 -0.955224 -12.226866 118 132 144 
-0.764179 -0.955224 -12.226866 133 144 146 
-0.720721 -0.960961 -12.300301 81 87 87 
-0.672673 -0.960961 -12.300301 48 50 52 
-0.624625 -0.960961 -12.300301 56 54 56 
-0.580060 -0.966767 -12.374622 67 60 63 
-0.534954 -0.972644 -12.449848 79 69 72 
-0.103896 -0.692641 -8.865801 128 112 102 
0.080000 -0.800000 -10.240000 172 189 191 
0.119701 -0.798005 -10.214464 172 189 189 
0.159601 -0.798005 -10.214464 172 190 190 
0.199501 -0.798005 -10.214464 172 189 189 
0.246914 -0.493827 -6.320988 124 135 141 
0.271605 -0.493827 -6.320988 117 113 104 
0.486957 -0.347826 -4.452174 126 108 100 
0.504348 -0.347826 -4.452174 120 120 118 
0.512821 -0.341880 -4.376069 125 134 133 
0.529915 -0.341880 -4.376069 136 143 140 
0.547009 -0.341880 -4.376069 154 157 154 
0.700565 -0.225989 -2.892655 120 104 72 
0.711864 -0.225989 -2.892655 120 103 69 
0.723164 -0.225989 -2.892655 120 103 71 
-0.855518 -0.382253 -4.659841 107 122 144 
-0.836364 -0.381818 -4.654545 104 121 143 
-0.815402 -0.380521 -4.638731 101 119 141 
-0.794582 -0.379232 -4.623025 101 118 140 
-0.775648 -0.378805 -4.617813 102 118 140 
-0.740904 -0.370452 -4.515987 102 120 141 
-0.712269 -0.364821 -4.447340 102 120 140 
-0.688913 -0.361679 -4.409042 105 121 143 
-0.665245 -0.358209 -4.366738 106 122 143 
-0.646809 -0.357447 -4.357447 106 123 144 
-0.628450 -0.356688 -4.348196 107 123 145 
-0.612115 -0.357067 -4.352816 104 120 142 
-2.051282 -1.230769 -15.003663 98 115 137 
-1.992674 -1.230769 -15.003663 93 110 131 
-1.920000 -1.221818 -14.894546 91 106 128 
-1.855072 -1.217391 -14.840580 90 104 125 
-1.797101 -1.217391 -14.840580 88 101 122 
-1.739130 -1.217391 -14.840580 85 99 120 
-1.681159 -1.217391 -14.840580 90 104 124 
-1.611511 -1.208633 -14.733813 102 117 137 
-1.548387 -1.204301 -14.681004 125 140 158 
-1.469965 -1.187279 -14.473498 127 143 161 
-1.379310 -1.158621 -14.124138 104 119 139 
-1.301695 -1.138983 -13.884746 91 105 125 
-1.247458 -1.138983 -13.884746 91 104 123 
-1.159420 -1.217391 -14.840580 110 123 143 
-0.950000 -1.050000 -12.800000 112 126 144 
-0.878049 -1.024390 -12.487804 115 130 147 
-0.826748 -1.021277 -12.449848 131 142 150 
-0.780488 -1.024390 -12.487804 141 150 151 
-0.736196 -1.030675 -12.564417 95 104 104 
-0.687117 -1.030675 -12.564417 51 53 55 
-0.638037 -1.030675 -12.564417 56 53 54 
-0.583587 -1.021277 -12.449848 67 60 61 
-0.534954 -1.021277 -12.449848 77 68 70 
-0.493827 -1.037037 -12.641975 88 76 75 
0.080000 -0.840000 -10.240000 172 188 189 
0.119701 -0.837905 -10.214464 171 188 188 
0.159601 -0.837905 -10.214464 171 188 188 
0.198020 -0.831683 -10.138614 170 187 187 
0.237037 -0.829630 -10.113581 169 185 186 
0.223256 -0.520930 -6.350388 127 140 148 
0.248062 -0.520930 -6.350388 125 136 142 
0.486957 -0.365217 -4.452174 125 106 98 
0.504348 -0.365217 -4.452174 119 115 113 
0.512821 -0.358974 -4.376069 123 131 129 
0.529915 -0.358974 -4.376069 133 141 138 
0.547009 -0.358974 -4.376069 152 155 154 
0.700565 -0.237288 -2.892655 119 102 70 
0.711864 -0.237288 -2.892655 120 102 67 
0.723164 -0.237288 -2.892655 120 103 69 
-0.855518 -0.400455 -4.659841 102 118 139 
-0.836364 -0.400000 -4.654545 98 117 139 
-0.814480 -0.398190 -4.633484 102 120 142 
-0.795480 -0.397740 -4.628249 104 121 140 
-0.773034 -0.395506 -4.602247 102 119 139 
-0.729642 -0.382193 -4.447340 102 119 141 
-0.710726 -0.381365 -4.437703 101 119 141 
-0.687433 -0.378088 -4.399570 102 119 141 
-0.663830 -0.374468 -4.357447 107 123 143 
-0.645435 -0.373673 -4.348196 104 120 142 
-0.627119 -0.372881 -4.338983 106 121 144 
-0.610169 -0.372881 -4.338983 104 120 143 
-0.594480 -0.373673 -4.348196 99 116 138 
-1.985402 -1.284672 -14.948905 95 111 132 
-1.920000 -1.280000 -14.894546 93 107 127 
-1.861818 -1.280000 -14.894546 91 105 124 
-1.803636 -1.280000 -14.894546 88 101 120 
-1.745455 -1.280000 -14.894546 84 97 117 
-1.687273 -1.280000 -14.894546 90 102 122 
-1.623188 -1.275362 -14.840580 99 114 133 
-1.553957 -1.266187 -14.733813 118 134 153 
-1.475177 -1.248227 -14.524822 131 146 165 
-1.388889 -1.222222 -14.222222 116 131 150 
-1.324138 -1.213793 -14.124138 101 116 136 
-1.277778 -1.222222 -14.222222 97 111 133 
-1.323308 -1.323308 -15.398497 100 114 135 
-1.312500 -1.375000 -16.000000 106 120 140 
-1.250000 -1.375000 -16.000000 112 126 145 
-1.187500 -1.375000 -16.000000 114 128 146 
-0.802508 -1.103448 -12.840125 143 153 153 
-0.750000 -1.100000 -12.800000 110 120 119 
-0.695652 -1.093168 -12.720497 55 58 58 
-0.638037 -1.079755 -12.564417 55 52 53 
-0.583587 -1.069909 -12.449848 65 59 61 
-0.534954 -1.069909 -12.449848 75 66 67 
-0.493827 -1.086420 -12.641975 85 73 71 
0.080000 -0.880000 -10.240000 170 187 187 
0.119701 -0.877805 -10.214464 170 186 187 
0.159601 -0.877805 -10.214464 170 186 187 
0.197531 -0.869136 -10.113581 169 185 186 
0.150235 -0.550861 -6.410016 167 184 185 
0.175000 -0.550000 -6.400000 167 183 184 
0.199688 -0.549142 -6.390016 154 167 169 
0.223256 -0.545736 -6.350388 128 142 149 
0.248062 -0.545736 -6.350388 125 137 143 
0.486957 -0.382609 -4.452174 125 103 95 
0.504348 -0.382609 -4.452174 117 109 105 
0.512821 -0.376068 -4.376069 116 121 120 
0.529915 -0.376068 -4.376069 125 132 130 
0.547009 -0.376068 -4.376069 144 148 147 
0.700565 -0.248588 -2.892655 119 100 70 
0.711864 -0.248588 -2.892655 119 101 69 
0.723164 -0.248588 -2.892655 118 102 72 
-0.855518 -0.418658 -4.659841 101 118 139 
-0.835414 -0.417707 -4.649262 102 119 141 
-0.813559 -0.415819 -4.628249 104 120 142 
-0.795480 -0.415819 -4.628249 104 120 142 
-0.767857 -0.410714 -4.571429 103 119 141 
-0.729642 -0.399566 -4.447340 104 121 143 
-0.709189 -0.397838 -4.428108 104 121 142 
-0.685959 -0.394427 -4.390139 105 121 142 
-0.662420 -0.390658 -4.348196 105 121 142 
-0.644068 -0.389830 -4.338983 100 116 138 
-0.625793 -0.389006 -4.329810 100 116 139 
-0.608237 -0.388596 -4.325238 101 117 140 
-0.593220 -0.389830 -4.338983 99 115 138 
-1.985402 -1.343066 -14.948905 99 114 135 
-1.927007 -1.343066 -14.948905 94 109 130 
-1.868613 -1.343066 -14.948905 88 103 124 
-1.810219 -1.343066 -14.948905 85 100 121 
-1.758242 -1.347985 -15.003663 84 98 119 
-1.699634 -1.347985 -15.003663 88 101 122 
-1.635036 -1.343066 -14.948905 95 110 131 
-1.570909 -1.338182 -14.894546 113 129 150 
-1.491039 -1.318996 -14.681004 130 145 165 
-1.418440 -1.304965 -14.524822 119 136 157 
-1.352113 -1.295775 -14.422535 106 122 143 
-1.368030 -1.368030 -15.226766 101 116 137 
-1.323308 -1.383459 -15.398497 101 115 136 
-1.312500 -1.437500 -16.000000 107 121 141 
-1.250000 -1.437500 -16.000000 112 127 146 
-0.645963 -1.142857 -12.720497 53 52 54 
-0.581818 -1.115152 -12.412121 63 57 61 
-0.533333 -1.115152 -12.412121 72 64 65 
-0.490798 -1.128834 -12.564417 83 71 69 
0.080000 -0.920000 -10.240000 170 185 184 
0.119701 -0.917706 -10.214464 170 184 184 
0.159601 -0.917706 -10.214464 170 184 184 
0.197531 -0.908642 -10.113581 168 184 183 
0.150000 -0.575000 -6.400000 167 183 183 
0.174727 -0.574103 -6.390016 167 182 183 
0.199067 -0.572317 -6.370140 155 168 170 
0.223256 -0.570543 -6.350388 129 143 151 
0.248062 -0.570543 -6.350388 125 136 143 
0.486957 -0.400000 -4.452174 122 102 97 
0.504348 -0.400000 -4.452174 111 104 102 
0.512821 -0.393162 -4.376069 115 120 119 
0.529915 -0.393162 -4.376069 127 134 132 
0.547009 -0.393162 -4.376069 142 145 145 
0.700565 -0.259887 -2.892655 117 99 70 
0.711864 -0.259887 -2.892655 117 99 72 
0.723164 -0.259887 -2.892655 116 99 72 
-0.854545 -0.436364 -4.654545 101 119 140 
-0.834467 -0.435374 -4.643991 104 120 141 
-0.812641 -0.433409 -4.623025 104 121 143 
-0.791011 -0.431461 -4.602247 108 124 145 
-0.763596 -0.426193 -4.546060 106 122 145 
-0.730435 -0.417391 -4.452174 100 118 141 
-0.708423 -0.414687 -4.423326 99 116 137 
-0.685225 -0.411135 -4.385439 104 121 141 
-0.661017 -0.406780 -4.338983 103 120 142 
-0.642706 -0.405920 -4.329810 98 114 138 
-0.623815 -0.404636 -4.316122 97 114 137 
-0.605678 -0.403785 -4.307045 99 115 138 
-0.590717 -0.405063 -4.320675 101 117 137 
-2.000000 -1.411765 -15.058824 100 116 133 
-1.941176 -1.411765 -15.058824 94 111 131 
-1.882353 -1.411765 -15.058824 90 106 128 
-1.823529 -1.411765 -15.058824 86 102 124 
-1.764706 -1.411765 -15.058824 85 99 120 
-1.705882 -1.411765 -15.058824 88 101 122 
-1.641026 -1.406593 -15.003663 93 107 128 
-1.582418 -1.406593 -15.003663 109 124 145 
-1.512727 -1.396364 -14.894546 130 144 164 
-1.438849 -1.381295 -14.733813 125 143 164 
-1.381295 -1.381295 -14.733813 108 125 148 
-1.383459 -1.443609 -15.398497 100 117 139 
-1.375000 -1.500000 -16.000000 102 117 139 
-1.312500 -1.500000 -16.000000 108 122 144 
-1.250000 -1.500000 -16.000000 110 125 145 
